69.329 568.460 7.619
69.303 568.500 7.688
69.339 568.470 7.724
69.005 568.410 7.970
68.964 568.450 6.464
69.106 568.480 4.831
69.142 568.540 7.851
69.083 568.510 7.828
69.295 568.230 6.929
69.173 568.360 5.450
69.085 568.160 5.910
69.178 568.370 5.492
69.226 568.400 5.767
69.287 568.490 7.519
69.319 568.450 7.524
69.142 568.530 7.785
69.073 568.510 7.708
69.131 568.540 7.671
69.158 568.520 7.720
69.324 568.460 7.399
69.143 568.460 5.199
69.191 568.380 5.533
69.174 568.420 5.452
69.142 568.460 5.149
69.361 568.320 7.802
69.296 568.220 7.812
69.210 568.320 16.622
69.241 568.320 16.722
69.130 568.470 16.674
69.180 568.310 16.640
69.303 568.380 6.493
69.247 568.520 7.680
70.383 568.540 6.945
70.222 568.380 6.688
69.495 568.450 10.774
69.387 568.520 10.210
69.209 568.550 7.030
69.589 570.480 6.343
69.104 568.420 8.682
69.904 568.540 15.615
69.955 568.600 15.662
69.936 568.590 15.720
69.956 568.370 15.690
69.028 568.220 7.192
69.198 568.540 7.711
69.686 568.410 11.930
69.924 571.850 13.307
69.405 568.400 8.467
69.415 568.410 8.520
69.404 568.400 8.417
69.133 568.470 8.544
69.109 568.420 8.622
69.155 568.460 8.599
70.272 570.560 6.620
70.459 570.460 6.766
70.293 570.410 6.770
70.501 570.430 6.755
69.037 571.900 18.447
69.117 571.870 18.602
69.722 568.380 12.083
69.167 571.810 17.527
70.575 569.950 20.560
70.622 569.960 20.454
70.630 569.860 20.579
70.502 569.800 20.501
69.213 571.760 17.526
70.407 568.580 12.609
70.527 568.580 12.639
70.559 568.440 12.573
70.484 568.550 12.566
70.221 568.220 6.736
70.331 568.130 7.027
69.439 568.350 12.848
69.611 568.130 12.836
69.507 568.120 12.934
69.438 568.280 12.842
69.942 572.130 13.517
69.932 572.220 13.608
68.984 569.330 6.125
68.965 569.100 6.363
68.925 569.030 6.299
69.033 568.470 7.884
68.988 568.430 7.816
68.941 568.460 6.279
69.026 568.210 7.045
69.867 568.330 14.204
69.216 568.490 8.429
69.241 568.510 7.628
69.635 568.230 16.168
69.634 568.230 16.089
69.784 568.250 15.989
69.653 568.200 16.007
69.053 568.460 8.119
69.019 568.380 8.123
69.055 568.460 8.069
69.208 568.550 6.860
69.071 568.510 7.648
69.299 568.240 7.004
69.369 568.430 7.986
70.068 569.900 6.662
68.920 568.410 6.710
69.300 568.240 7.154
69.768 567.750 15.784
69.590 567.630 15.818
69.833 567.480 15.915
69.195 568.540 7.091
69.364 568.370 7.822
69.038 568.390 8.115
69.347 568.410 7.560
69.341 568.410 7.500
69.358 568.370 7.592
68.924 568.410 6.660
69.332 568.350 7.228
69.329 568.350 7.178
70.010 568.270 9.983
69.403 568.230 8.619
68.967 568.250 6.729
69.317 568.510 7.848
69.307 568.500 7.908
69.120 568.550 6.720
69.062 568.520 6.740
69.380 568.330 7.894
69.102 568.190 8.319
68.998 568.430 7.736
69.541 569.380 6.855
69.205 568.550 6.700
69.207 568.550 6.810
69.791 568.850 6.498
69.718 568.750 6.566
69.879 568.590 6.346
69.045 568.470 8.004
68.993 568.430 7.676
69.926 568.620 6.905
70.230 568.440 6.663
69.178 568.360 10.250
69.346 568.410 7.610
69.357 568.310 7.650
69.317 568.240 7.674
69.760 569.610 6.973
69.021 568.480 7.651
69.029 568.470 7.714
69.666 569.820 6.195
69.823 569.800 6.320
69.071 568.520 7.540
69.060 568.320 8.592
69.077 568.510 7.768
69.368 568.430 7.936
69.129 568.410 8.810
69.520 568.410 9.710
69.472 568.490 10.129
69.373 568.530 10.305
69.409 568.290 8.405
69.411 568.140 9.578
69.639 567.960 14.677
69.499 567.940 14.737
69.220 568.660 17.435
69.187 568.640 17.315
69.474 569.520 6.096
69.579 569.820 6.185
70.082 568.770 6.719
70.132 568.810 6.530
69.224 568.510 8.518
69.068 568.510 7.308
69.154 568.530 7.615
69.174 568.520 7.550
70.129 568.750 6.774
70.240 568.500 6.646
70.226 568.600 6.632
69.503 568.240 9.594
69.319 568.460 7.569
69.353 568.310 7.700
69.362 568.320 7.742
69.618 568.120 16.484
70.202 568.630 6.636
69.384 568.220 8.572
70.135 568.960 6.560
70.150 568.860 6.614
69.855 568.950 6.542
69.204 569.660 6.636
69.528 569.950 7.097
69.734 569.910 7.022
69.607 569.990 7.131
69.761 569.790 7.072
69.096 569.390 6.476
68.903 569.390 6.436
69.320 568.460 7.459
69.450 569.640 6.973
69.229 568.510 8.448
69.299 568.490 8.089
69.247 568.150 8.989
69.510 568.350 9.428
69.130 568.440 8.970
69.518 568.440 12.650
69.471 568.400 12.617
69.521 568.360 9.710
69.369 568.480 9.241
69.230 568.510 8.568
70.034 568.190 6.828
69.250 568.520 7.570
69.419 568.350 8.498
70.208 568.700 10.962
70.303 568.750 10.954
70.310 568.710 10.865
69.186 568.540 7.490
69.188 568.540 7.541
69.219 567.430 18.844
70.363 567.990 11.524
69.347 568.420 7.662
70.062 570.450 6.663
70.078 570.350 6.656
70.103 568.800 6.728
69.196 568.540 7.591
69.426 568.300 8.558
69.260 565.280 21.853
69.450 565.170 21.719
69.482 565.390 21.713
69.411 565.440 21.840
69.332 568.150 8.609
69.525 567.320 20.312
69.488 565.150 21.873
69.921 564.290 21.339
69.927 564.410 21.174
69.438 569.370 18.683
69.418 569.350 18.752
69.459 569.400 18.726
69.424 569.410 18.766
69.234 566.890 20.896
69.722 568.540 21.271
69.707 568.520 21.330
69.700 568.970 21.295
69.649 568.890 21.093
69.911 568.970 21.213
70.296 566.630 22.933
70.201 566.870 23.187
69.925 566.830 23.085
70.246 566.810 23.190
69.235 568.720 17.618
69.218 568.740 17.610
69.214 568.710 17.559
69.802 568.800 21.414
69.746 568.770 21.407
69.780 568.810 21.470
68.861 567.660 22.756
68.860 567.350 22.433
69.631 565.450 22.014
69.534 567.910 14.462
69.531 567.910 14.542
69.570 567.910 14.502
69.726 568.220 17.672
69.799 568.170 17.610
69.840 568.170 17.700
70.239 566.700 22.788
70.114 566.680 22.598
70.032 566.980 22.718
70.438 566.960 22.663
69.809 568.550 22.170
69.586 568.460 22.099
69.746 570.330 22.536
69.651 570.530 22.646
69.696 570.410 22.460
69.547 570.290 22.839
69.469 569.840 22.113
69.687 568.560 21.223
68.931 568.190 18.349
69.429 567.170 19.489
69.973 566.640 20.056
69.658 566.520 19.983
69.927 566.720 20.208
68.992 566.830 19.820
68.942 566.890 19.756
68.890 566.800 19.679
69.489 567.220 18.915
69.231 568.770 17.657
69.515 568.300 9.528
69.281 568.270 16.318
69.296 568.440 10.850
69.139 568.430 8.846
69.427 568.300 8.498
69.111 568.420 8.732
68.965 567.990 18.681
69.499 568.130 16.096
69.581 568.160 16.170
69.685 568.170 12.770
69.691 568.160 12.690
69.693 568.030 14.940
69.668 568.010 14.981
69.876 572.050 13.165
69.953 572.090 13.463
69.669 568.400 11.817
69.548 568.490 11.819
69.602 568.360 11.110
69.448 568.480 9.651
69.469 568.380 9.043
69.578 568.400 10.967
70.123 570.120 6.603
70.123 570.170 6.586
70.115 570.120 6.613
69.278 568.210 10.835
69.326 568.490 10.449
69.423 568.420 11.902
69.657 568.390 11.705
70.125 568.200 12.161
70.234 568.170 10.241
69.534 568.900 14.708
69.475 568.930 14.705
70.452 568.050 10.132
70.644 568.070 10.221
70.438 568.050 10.142
70.692 568.400 10.373
70.819 568.630 10.236
69.763 568.490 10.389
70.698 568.890 11.882
70.601 568.730 11.889
69.536 568.510 11.958
70.744 566.630 22.803
70.742 566.700 22.778
70.714 566.610 22.662
70.693 566.590 22.739
69.562 568.470 12.664
69.068 571.300 12.176
70.184 572.410 13.998
70.208 572.420 14.045
69.703 568.360 15.810
69.952 568.360 15.813
69.962 568.340 15.738
69.156 567.550 14.836
69.143 567.580 14.882
69.505 568.510 11.848
69.886 568.470 15.124
69.897 568.470 15.144
69.576 568.260 14.044
69.657 568.010 14.021
69.514 568.060 13.173
69.502 568.130 11.786
70.334 568.000 11.079
70.251 567.990 11.254
70.286 568.340 11.018
70.354 568.130 11.317
69.589 568.150 11.940
69.594 568.420 13.402
69.708 568.210 13.595
69.502 568.650 12.596
70.602 567.880 12.074
70.802 567.930 12.037
70.798 567.960 11.970
70.745 567.900 12.123
69.446 568.210 13.015
70.116 566.720 10.928
70.481 569.880 10.394
70.673 569.770 10.023
70.562 570.020 9.942
70.752 570.030 10.013
69.938 568.380 14.627
69.989 568.440 14.563
70.015 568.400 14.572
69.915 568.390 14.565
69.699 568.420 11.982
69.613 568.130 12.756
69.598 568.570 12.157
70.669 568.980 10.195
70.713 569.160 10.149
70.633 568.800 10.038
70.497 569.080 10.171
70.521 568.710 9.875
70.532 568.690 9.939
70.714 569.520 13.577
70.742 569.380 13.647
70.709 569.490 13.620
70.698 569.490 13.580
69.426 567.950 14.651
69.533 567.910 14.612
69.468 567.940 14.617
70.019 571.610 13.159
69.964 571.630 13.316
69.317 568.360 16.100
69.295 568.370 16.142
70.701 568.270 12.523
70.628 568.170 12.331
70.558 568.280 12.553
70.427 566.740 11.296
69.444 567.080 15.472
68.747 566.440 15.530
68.931 566.540 15.497
69.315 566.690 15.924
69.433 567.700 15.774
69.523 568.040 15.794
69.395 568.100 15.938
69.490 567.770 16.033
69.591 567.640 15.920
69.674 568.130 13.666
69.732 568.300 14.638
69.814 568.330 13.774
68.970 567.990 18.601
69.473 567.230 19.446
69.276 567.610 18.698
69.109 567.910 18.762
69.564 567.220 19.525
69.486 568.320 13.642
69.041 566.880 19.725
69.195 566.950 19.621
69.680 568.020 14.226
69.682 568.020 14.076
69.881 568.350 14.288
69.356 566.640 15.886
70.852 567.950 12.065
69.608 568.130 12.676
69.683 567.950 14.591
69.647 567.950 14.582
69.636 567.940 14.637
70.136 569.320 12.344
70.261 569.090 12.123
70.132 569.060 12.176
70.123 569.310 12.292
69.477 568.160 12.780
69.712 568.380 13.573
69.649 567.950 14.502
70.783 567.940 12.291
69.572 568.040 13.484
69.650 568.110 13.612
69.632 568.100 13.328
69.688 570.220 15.426
69.860 570.390 15.208
70.059 570.290 15.258
69.820 568.330 13.404
69.445 568.050 13.628
69.662 568.180 15.430
69.665 568.120 15.384
69.581 567.240 14.588
70.575 568.660 14.442
70.503 568.400 14.452
70.763 568.470 14.608
70.623 568.520 14.675
70.037 571.620 13.078
70.148 572.530 14.114
70.226 572.430 14.093
69.680 569.600 14.877
69.500 568.000 13.616
69.650 568.720 14.758
69.620 568.850 14.638
70.588 569.820 9.957
70.874 568.120 12.503
70.601 567.880 12.334
69.752 568.240 13.684
69.711 572.690 14.520
69.567 567.920 14.797
69.696 569.310 14.889
69.681 569.230 14.890
69.863 568.490 15.219
69.883 568.370 15.312
69.647 568.220 15.252
68.972 571.230 16.245
69.591 570.190 15.413
69.766 568.390 18.695
69.085 568.530 17.155
69.050 568.460 17.259
69.605 568.780 16.163
70.312 572.520 14.670
70.236 572.570 14.661
70.326 572.880 15.137
70.321 573.050 15.181
70.313 572.930 15.217
70.374 573.080 15.094
69.469 568.010 15.281
69.883 568.320 15.302
69.667 568.180 15.500
69.906 568.390 15.485
69.425 568.220 15.222
69.849 568.370 18.582
69.784 568.270 18.518
69.926 568.350 18.515
69.970 572.090 13.523
70.009 571.650 13.343
70.251 568.070 19.441
69.971 568.080 19.616
69.339 571.820 17.715
69.646 573.350 14.722
69.553 573.360 14.510
69.728 573.740 14.521
69.901 573.380 14.434
70.717 569.980 20.572
70.608 570.000 20.578
69.961 572.350 13.853
69.950 572.400 13.891
70.218 573.000 14.353
69.897 572.740 14.441
70.158 573.070 14.399
69.448 571.910 17.951
69.308 571.720 17.753
69.772 572.050 16.575
70.362 574.880 17.347
70.538 575.110 17.310
70.272 575.080 17.341
70.577 575.150 17.503
70.161 566.660 20.533
69.776 566.750 20.511
70.012 566.590 20.659
70.181 574.780 16.982
70.197 574.830 17.083
70.187 574.830 16.953
70.527 574.350 18.851
70.577 574.370 18.873
70.536 574.400 18.913
70.551 574.270 18.898
70.416 572.590 14.821
70.407 572.690 14.769
70.380 572.720 14.784
69.718 568.710 21.499
70.143 572.310 13.931
70.158 572.410 13.958
70.081 572.390 13.925
70.128 572.390 13.925
68.911 568.410 19.450
69.376 566.970 20.443
69.346 571.960 17.873
69.331 572.010 17.983
68.925 573.220 21.386
68.958 573.370 16.628
69.418 568.930 18.115
69.338 569.010 18.115
69.419 568.990 18.253
69.070 571.540 17.311
70.338 572.460 14.582
69.608 572.210 16.775
69.707 572.140 16.530
69.534 567.190 19.551
69.611 566.840 19.821
69.125 572.040 15.400
68.956 571.830 15.134
69.642 568.100 16.958
69.626 568.080 16.801
69.718 568.120 16.824
70.392 567.040 15.897
70.694 566.900 15.904
70.631 567.180 15.935
70.573 567.050 16.200
70.109 572.520 14.080
70.211 572.340 14.144
70.197 572.330 14.084
70.208 567.430 22.307
70.109 567.470 22.264
70.065 567.440 22.339
70.173 567.470 22.324
69.960 564.800 21.252
69.757 568.400 18.687
69.744 568.500 18.788
69.558 568.280 13.962
70.388 570.180 15.285
69.654 568.350 18.958
69.658 568.420 19.022
69.526 567.240 14.488
69.650 568.080 15.471
69.382 568.110 15.462
69.961 568.260 18.282
69.938 568.350 18.325
69.984 568.270 18.353
70.029 568.360 18.363
69.517 567.980 13.596
69.110 566.800 15.447
69.859 568.360 15.000
69.888 568.440 15.090
69.881 568.370 15.012
69.538 567.540 16.112
70.189 568.520 13.035
70.261 568.500 12.976
70.035 568.300 13.113
69.639 567.740 15.730
69.606 568.380 19.273
69.690 568.030 14.520
69.680 567.950 14.442
69.934 568.390 14.485
70.007 565.290 21.383
70.017 565.070 21.062
69.396 568.040 14.934
69.747 568.360 18.690
69.707 568.320 18.722
69.397 568.040 15.264
69.405 569.560 19.173
69.408 569.550 19.208
69.697 569.710 19.240
69.745 568.350 19.298
69.372 568.320 15.952
69.390 568.310 15.900
69.144 569.190 16.987
69.129 569.270 16.789
69.134 569.130 16.822
69.078 569.200 16.933
69.410 569.560 15.473
69.465 569.340 15.470
69.720 569.380 15.455
69.583 567.570 15.706
68.728 566.650 15.399
68.773 566.610 15.377
70.281 567.820 19.040
70.430 568.070 18.961
70.515 568.030 18.903
70.319 568.020 18.929
69.636 567.440 16.229
69.644 567.950 14.752
70.674 566.810 15.800
70.655 566.820 15.762
70.517 566.750 16.003
70.662 566.870 15.857
69.616 568.690 14.671
69.612 568.650 14.586
70.055 568.520 14.585
70.357 572.670 14.669
70.386 572.680 14.714
70.261 572.690 14.669
69.668 569.610 15.103
69.860 568.480 15.661
69.635 568.500 15.738
69.545 568.210 14.515
70.058 568.450 14.571
70.229 568.550 14.766
70.140 568.510 14.555
69.121 566.820 15.909
69.536 566.210 21.245
69.643 566.450 21.209
69.654 566.220 21.066
69.365 568.190 16.049
69.338 568.280 16.042
69.352 568.270 15.998
69.725 566.600 17.580
69.764 566.580 17.606
69.661 568.180 14.520
69.671 568.180 16.420
69.726 567.770 15.653
69.674 567.790 15.682
69.957 567.540 15.855
70.022 567.420 15.846
69.907 567.570 15.910
69.877 568.320 15.122
69.808 568.330 15.014
69.882 568.310 15.050
69.379 568.180 15.790
69.642 567.940 15.627
69.429 568.280 15.812
70.590 568.340 16.038
70.510 568.040 16.008
70.758 568.300 16.163
70.375 568.320 16.231
69.573 566.760 19.903
69.995 568.690 15.879
69.926 568.590 15.790
69.737 568.230 18.879
69.950 568.190 18.758
69.728 568.030 19.060
69.143 567.330 15.728
69.950 568.360 18.143
69.867 568.360 18.040
69.577 567.500 16.207
69.566 567.500 16.207
68.855 566.650 18.109
68.936 566.420 18.214
68.828 566.540 17.965
69.973 568.700 15.942
70.693 566.710 15.904
70.784 566.940 15.908
69.653 568.080 15.551
69.648 568.210 15.505
70.327 568.760 14.787
70.346 568.550 14.536
69.076 566.880 19.805
69.129 566.900 19.717
69.099 566.870 19.764
69.369 568.190 16.119
69.518 569.660 15.076
70.029 567.600 15.856
69.956 567.560 15.858
69.714 568.260 14.424
69.770 568.350 14.458
69.886 568.350 15.288
69.499 567.230 15.596
69.856 568.260 17.074
70.131 567.940 17.111
70.054 567.960 17.010
69.609 568.800 14.574
69.969 567.540 16.345
69.669 567.440 16.639
69.729 567.330 16.298
69.896 567.220 16.415
69.604 567.350 16.384
69.184 567.620 15.338
68.906 567.300 15.143
69.227 566.620 21.343
69.269 566.610 21.351
68.921 569.580 17.204
69.102 569.730 17.191
69.167 569.370 17.373
69.017 569.590 17.111
69.795 568.320 14.532
69.919 568.380 14.667
70.817 567.370 17.386
70.807 567.300 17.340
70.834 567.270 17.353
69.203 568.430 16.386
69.245 568.340 16.296
69.201 568.380 16.323
69.799 568.800 17.284
69.054 569.150 18.184
69.968 567.330 17.648
69.891 567.440 17.489
69.880 567.430 17.624
69.949 567.610 17.597
69.818 568.320 14.892
69.297 567.500 18.827
69.487 565.070 21.939
69.561 564.930 21.790
69.458 565.060 21.957
69.498 565.070 21.829
69.437 567.860 16.156
69.880 568.350 18.328
69.332 566.780 19.395
69.248 567.010 19.577
69.186 566.890 19.016
69.476 568.160 16.270
69.182 568.510 16.748
69.924 567.210 16.565
69.381 568.110 15.872
70.055 568.380 15.017
70.065 568.350 14.985
69.643 568.110 15.792
69.664 567.840 19.426
69.786 567.760 19.548
69.781 567.860 19.276
70.754 567.440 17.439
70.478 567.330 17.628
70.226 568.000 18.919
70.196 568.180 18.865
70.376 568.080 18.896
69.653 568.970 14.745
69.546 565.260 21.544
69.445 565.070 22.139
69.898 568.540 15.300
69.462 568.400 15.897
69.396 568.390 15.895
69.501 568.350 15.698
69.651 568.210 15.915
69.267 568.320 16.252
69.270 568.390 16.185
69.128 568.450 16.624
69.175 568.330 16.504
70.017 566.460 19.972
68.997 568.140 18.628
68.973 568.120 18.564
69.805 566.850 19.052
69.869 566.680 17.412
69.846 566.550 17.519
68.956 571.390 17.240
70.134 566.590 15.949
70.515 566.690 16.099
70.207 566.750 16.243
70.260 566.620 15.821
70.347 566.950 15.760
69.752 568.480 19.261
70.269 567.830 17.053
70.283 567.910 16.968
69.711 567.700 17.694
69.751 567.740 17.500
69.734 568.270 18.638
69.026 566.890 19.766
69.277 567.030 19.598
69.843 566.670 17.321
69.587 564.680 21.873
69.590 564.850 21.959
69.617 564.880 21.906
70.007 566.600 17.654
69.497 566.570 17.394
70.228 566.470 15.923
70.609 566.620 16.001
70.292 566.580 15.796
70.607 567.200 15.871
69.084 567.910 18.822
68.850 567.010 18.968
69.716 568.230 18.809
69.938 566.460 19.912
69.650 566.380 19.891
69.972 566.400 19.814
69.984 566.390 19.880
69.749 568.210 18.715
69.896 566.500 19.867
68.877 566.990 18.965
69.868 568.360 18.130
70.045 568.310 19.163
70.000 568.160 19.418
70.133 567.920 19.212
70.215 568.150 19.354
69.873 567.020 19.208
69.437 567.170 19.509
69.438 567.170 19.499
69.691 568.330 18.784
69.784 568.410 18.870
69.126 568.000 18.876
69.521 568.090 18.835
69.637 568.160 18.520
70.305 565.990 19.777
70.269 566.040 19.799
70.345 566.190 19.902
70.256 566.150 19.768
69.706 568.250 18.799
69.376 569.310 18.719
69.393 569.370 18.793
69.841 568.150 18.209
69.427 566.460 18.933
68.943 565.930 22.159
69.964 566.570 19.954
69.815 568.380 19.133
69.797 568.420 19.082
69.802 568.430 19.166
70.175 566.010 20.336
69.464 567.260 18.901
70.174 565.500 20.023
70.416 565.500 20.133
70.189 565.170 20.176
70.164 565.480 20.000
69.565 566.560 18.842
69.400 566.920 20.449
70.287 568.360 14.633
70.484 568.400 14.553
70.036 566.820 19.402
69.943 567.060 19.303
70.074 566.900 19.564
70.182 566.850 19.474
69.558 567.260 19.951
70.256 564.820 19.764
70.194 564.810 19.824
70.174 564.950 19.760
70.106 564.910 19.769
70.131 568.880 16.119
70.439 568.900 16.234
70.150 568.920 16.080
70.117 568.950 16.187
69.765 566.170 21.002
69.558 567.150 18.908
69.744 567.050 18.930
69.210 566.970 19.733
70.106 568.330 19.510
70.052 568.370 19.490
70.173 568.500 19.266
70.218 568.280 19.333
69.244 566.450 20.899
69.892 567.160 19.069
70.214 566.620 20.061
70.302 566.230 19.955
70.006 566.480 20.004
69.523 567.970 19.362
70.153 566.180 19.842
69.551 567.880 19.227
70.162 566.240 19.856
70.024 566.320 19.845
69.957 568.290 18.153
69.844 566.670 20.641
69.483 567.250 19.499
70.565 567.630 17.411
70.545 567.670 17.430
70.574 567.640 17.494
70.577 567.660 17.428
70.262 568.610 18.783
70.037 568.360 18.703
70.346 568.430 18.765
70.461 569.760 20.560
70.375 569.590 20.322
70.457 569.910 20.335
70.424 566.100 20.269
70.343 566.080 20.243
69.099 567.600 19.578
69.166 567.570 19.896
69.731 564.640 21.221
69.461 567.390 20.056
70.306 564.620 21.224
70.720 567.580 17.491
70.625 567.780 17.424
70.256 568.400 18.912
69.934 568.720 18.907
69.936 568.360 18.663
69.909 568.440 18.723
69.889 568.340 18.776
69.781 568.340 18.586
69.622 565.460 22.448
69.362 568.190 15.979
69.677 569.210 14.849
69.746 568.220 18.622
69.592 564.140 21.438
69.674 564.350 21.592
68.802 567.510 19.595
69.212 566.430 20.860
69.178 566.350 20.851
69.998 566.490 19.864
69.557 568.100 16.718
69.257 568.300 16.648
70.329 566.010 19.906
69.702 568.510 19.828
70.050 565.430 21.406
69.979 565.550 21.443
70.125 565.610 21.648
70.056 565.720 21.297
70.297 566.760 19.528
70.213 566.800 19.478
70.266 565.840 19.880
70.306 565.870 19.883
70.247 565.950 19.889
69.643 566.150 21.090
69.816 566.160 21.085
69.803 568.690 20.691
70.003 566.420 19.902
69.966 564.530 21.222
69.874 572.960 14.394
70.423 566.590 19.989
70.299 566.250 19.757
69.236 568.290 16.615
69.628 569.300 15.359
69.452 566.190 21.347
69.445 566.190 21.307
69.416 566.180 21.359
69.365 565.130 21.027
70.103 566.320 19.845
70.102 565.380 19.982
70.266 565.280 19.640
70.254 564.970 19.755
70.141 564.960 19.757
69.586 568.010 15.641
69.644 568.050 15.618
69.653 568.110 15.772
69.472 568.330 15.664
70.137 568.160 18.948
70.005 568.290 19.083
69.163 566.690 22.524
69.208 566.680 22.822
69.904 565.620 22.328
69.891 565.620 22.324
69.965 565.860 22.249
70.037 566.970 19.615
69.094 568.630 17.431
69.247 565.170 22.209
70.198 566.060 19.796
70.223 566.090 19.756
69.134 567.260 20.681
69.133 567.360 20.783
70.352 566.920 20.695
70.648 566.930 20.917
70.454 566.940 20.698
70.616 566.990 20.881
69.915 565.690 22.212
69.634 564.050 21.483
69.454 564.010 21.457
69.689 564.460 20.721
69.310 565.900 21.452
69.643 566.110 21.386
69.781 568.310 19.070
69.706 564.520 20.462
69.629 565.050 21.235
69.555 565.490 20.911
69.567 565.540 20.985
70.335 565.960 19.933
70.332 565.960 19.923
69.102 566.710 23.186
70.153 565.450 19.814
69.906 565.380 20.002
70.143 565.440 19.968
70.241 566.130 19.765
69.707 566.210 19.835
69.246 566.590 21.598
70.359 568.570 23.027
70.410 568.490 23.096
70.175 568.570 22.957
70.316 568.540 22.975
70.467 568.410 14.480
70.409 568.610 14.443
69.158 565.170 22.279
70.424 565.880 19.957
70.322 565.890 19.921
69.910 568.440 20.373
69.672 568.640 20.295
69.772 568.670 20.215
69.489 565.080 21.990
69.375 565.810 21.184
70.129 566.540 20.776
70.046 566.860 21.050
69.979 566.630 20.793
70.249 566.490 20.864
69.587 569.660 22.316
69.563 569.490 22.309
69.603 569.510 22.373
70.270 565.200 19.583
70.288 565.050 19.660
69.809 564.760 21.168
69.285 565.490 21.781
68.980 565.910 22.104
69.581 564.660 22.002
69.224 566.620 23.233
70.051 565.180 20.341
69.469 565.160 21.651
69.500 565.210 21.652
69.607 564.450 21.698
69.676 564.920 22.097
69.297 568.700 23.647
69.192 568.990 23.363
69.177 566.050 21.788
69.152 565.550 22.210
70.616 565.790 21.229
70.443 565.640 21.181
70.435 565.710 21.083
70.501 565.610 21.028
69.618 564.890 21.318
68.702 565.820 22.141
69.477 569.770 22.226
69.202 565.580 22.035
70.370 566.910 20.675
70.198 567.260 20.559
70.141 567.200 20.431
70.137 567.210 20.534
70.570 564.780 21.929
70.476 564.950 21.960
70.447 564.980 21.882
70.417 564.930 21.824
69.972 565.570 21.371
69.915 564.280 21.478
69.869 565.780 21.957
69.928 565.370 21.138
70.345 564.980 22.182
70.325 564.840 22.185
70.224 565.000 22.056
69.741 565.830 21.808
68.940 566.590 23.258
70.247 567.840 19.548
70.086 565.180 20.562
70.077 565.130 20.511
70.024 565.140 20.767
70.192 565.640 21.181
69.519 566.890 21.336
68.775 566.060 22.709
69.791 568.560 22.413
70.131 569.530 22.589
70.162 569.460 22.474
70.168 569.530 22.509
70.328 569.620 22.568
70.672 566.920 20.825
70.651 566.950 20.750
70.664 566.930 20.827
70.024 565.240 20.474
69.845 567.740 19.590
70.016 566.670 19.787
70.177 567.160 19.308
70.655 566.690 22.769
70.421 566.600 22.954
70.655 566.680 22.698
69.730 568.250 17.779
69.808 568.380 17.713
69.058 567.620 21.558
69.963 567.430 22.217
70.068 567.290 22.188
70.020 567.480 22.125
70.078 567.410 22.174
69.757 569.220 22.724
69.897 569.160 22.357
69.844 569.450 22.516
69.861 568.340 21.586
69.168 571.930 18.458
70.244 568.280 14.573
70.126 568.470 14.548
68.758 566.050 22.779
68.999 567.950 23.302
69.661 568.440 21.800
69.854 568.350 21.648
69.764 568.400 21.647
69.679 568.470 21.714
69.058 567.240 21.998
68.887 567.330 22.319
69.714 568.580 22.166
69.886 568.580 22.066
69.713 568.530 22.205
68.999 567.180 23.450
68.848 568.940 17.827
70.694 573.540 16.387
70.639 573.590 16.551
69.998 568.570 16.077
70.002 568.750 16.024
69.793 568.340 18.036
70.491 567.300 21.460
70.253 567.440 21.559
70.170 567.290 21.588
70.401 567.460 21.722
69.387 574.180 22.304
69.813 568.770 21.497
69.752 568.760 21.491
69.677 573.590 21.757
69.648 573.510 21.780
69.384 573.380 21.536
69.688 573.500 21.741
69.080 567.460 23.678
69.152 568.980 24.224
69.397 568.970 24.335
69.348 568.720 24.138
69.457 568.850 24.178
69.017 568.740 23.980
70.211 569.360 22.423
70.266 569.660 22.247
70.131 569.510 22.444
69.732 568.650 21.596
69.641 568.590 21.736
69.681 568.020 14.676
69.142 568.310 16.850
69.164 568.310 16.820
69.139 568.310 16.760
69.090 568.360 16.820
70.208 567.150 15.755
70.217 567.160 15.788
70.205 567.010 15.647
69.609 573.160 14.588
69.559 573.160 14.608
69.543 569.060 17.016
69.518 569.100 17.053
69.224 569.040 16.901
69.280 569.120 17.162
69.101 569.140 16.848
69.225 568.880 16.718
69.261 569.250 16.998
69.314 569.350 17.122
69.142 569.250 17.268
69.427 567.970 16.282
69.998 568.920 21.000
69.742 568.730 20.765
69.806 568.690 21.001
70.270 566.770 10.871
69.799 568.290 14.455
70.551 569.500 11.683
70.701 569.360 11.693
70.839 569.390 11.649
70.683 569.450 11.722
69.212 571.530 17.366
69.376 568.120 15.264
69.446 569.270 15.399
70.350 568.270 14.783
69.383 568.110 15.802
69.370 568.120 15.734
68.974 568.520 19.700
69.847 568.490 19.729
69.792 568.530 19.665
69.985 568.450 16.051
70.006 568.440 16.143
70.028 568.160 16.168
69.373 568.180 15.720
69.360 568.130 15.656
70.794 573.400 16.215
70.860 573.390 16.174
70.830 573.420 16.267
70.854 573.270 16.125
69.240 568.670 17.595
69.245 568.980 18.064
69.345 569.130 18.442
69.305 569.090 18.461
69.690 568.120 18.404
69.269 568.990 18.143
69.266 568.980 18.064
69.252 569.100 18.053
69.432 570.930 17.018
69.315 571.150 16.669
69.916 568.390 15.545
70.699 567.450 17.371
69.108 568.680 17.601
69.539 568.100 15.908
69.379 568.110 15.532
69.913 568.550 15.596
69.088 568.370 16.882
69.169 568.510 16.808
69.667 568.010 15.601
69.659 568.200 16.337
69.481 568.150 16.190
69.593 568.150 16.250
69.528 568.080 16.921
69.562 568.370 16.222
69.818 568.410 19.800
69.835 568.500 19.748
70.195 570.370 15.228
69.757 569.880 14.731
69.030 568.050 18.618
69.022 568.090 18.675
69.927 568.380 18.227
68.946 568.220 18.342
69.684 569.460 14.812
70.044 570.360 15.187
69.853 568.240 18.774
70.391 569.370 10.185
70.537 569.460 10.274
70.554 569.110 10.257
69.889 568.320 15.062
69.066 568.070 18.827
69.097 568.030 18.930
69.888 568.480 15.771
69.944 568.380 15.817
69.962 568.370 15.760
69.621 568.530 14.325
70.836 569.740 13.786
70.772 569.400 13.701
69.018 568.040 18.694
70.370 568.890 15.062
69.310 570.990 17.117
69.331 568.460 16.089
69.331 568.350 16.048
69.986 568.330 18.160
69.411 568.300 15.858
69.971 570.150 15.008
69.334 569.470 15.250
69.645 568.110 15.872
70.173 568.720 16.207
69.994 568.480 16.267
69.405 568.030 15.530
69.489 568.350 15.818
70.588 568.300 14.413
69.885 568.270 17.588
69.393 568.240 15.834
69.088 568.430 16.816
69.101 568.430 16.756
70.256 572.490 14.999
70.706 572.510 14.996
70.714 572.470 15.004
70.391 572.560 14.867
70.081 570.450 15.083
70.054 570.420 15.238
69.946 570.090 15.068
69.020 569.520 17.026
70.322 568.710 11.844
70.469 568.650 11.850
70.476 568.600 11.842
69.662 568.450 15.604
69.486 568.450 16.004
69.269 569.930 15.188
70.347 568.750 14.854
70.125 568.940 15.125
70.021 573.140 14.608
70.089 573.140 14.458
69.163 569.600 17.097
69.645 568.340 15.866
69.269 568.450 16.264
69.349 569.920 15.184
69.529 568.960 15.838
69.866 570.460 15.194
69.489 570.090 15.294
69.121 572.990 15.111
69.178 573.100 15.421
70.236 570.420 15.348
70.249 570.430 15.265
70.218 568.490 14.506
69.803 570.170 14.918
70.236 572.480 14.136
70.266 572.490 14.179
70.212 572.520 14.150
69.955 568.350 15.655
69.739 569.540 18.983
69.761 569.660 19.046
70.294 572.820 14.973
70.280 572.750 15.066
70.307 572.770 15.043
70.299 572.820 15.103
69.748 568.830 20.970
69.725 568.700 21.087
69.726 568.700 20.927
70.195 567.290 15.778
70.128 567.360 15.865
69.551 568.070 16.817
69.820 568.440 18.770
70.877 568.490 14.526
70.238 568.010 17.194
69.220 568.480 16.431
69.975 568.540 16.355
69.984 568.630 16.276
69.575 570.670 17.075
70.217 572.390 14.115
69.355 571.510 15.375
69.112 568.480 16.791
69.332 568.940 15.598
69.355 568.330 16.004
69.354 568.350 15.968
69.242 568.300 16.528
69.168 568.450 16.494
70.696 567.500 17.418
70.796 567.410 17.384
69.976 568.320 18.691
70.702 574.940 17.602
70.488 574.810 17.308
70.211 572.820 15.253
70.318 572.780 15.215
69.536 568.070 16.857
69.985 568.490 16.396
69.694 568.280 16.162
69.085 568.630 17.491
69.019 568.410 17.220
70.001 567.900 17.123
70.054 567.980 17.389
69.133 568.320 16.672
69.940 568.380 15.887
69.122 568.480 16.731
69.965 568.640 15.799
69.770 568.190 16.939
70.297 570.160 15.457
70.241 569.930 15.442
70.299 569.910 15.695
70.217 570.010 15.681
70.292 569.410 16.714
70.254 569.390 16.659
70.230 569.350 16.721
70.298 569.460 16.754
69.249 568.400 16.227
69.202 569.180 17.269
70.163 568.010 18.884
70.167 567.960 18.530
69.609 566.960 21.192
69.918 567.040 20.907
69.971 567.100 20.997
69.997 566.990 20.951
69.136 568.430 16.396
69.224 569.140 17.288
70.048 567.580 15.931
69.078 568.500 17.048
69.788 567.900 16.687
69.452 569.620 16.880
70.199 567.320 15.846
70.235 567.290 16.128
69.254 568.460 16.319
70.037 568.660 16.632
70.045 568.670 16.645
69.994 568.620 16.625
70.249 568.470 16.598
69.001 569.570 16.969
69.543 568.620 16.529
69.670 568.300 16.908
69.712 568.150 17.320
70.397 570.720 15.314
70.304 571.000 15.313
70.100 570.660 15.255
70.163 570.930 15.450
69.754 568.290 17.985
69.516 568.780 16.993
69.735 568.230 16.849
70.019 568.510 16.375
70.006 568.560 16.486
68.862 569.010 16.524
69.810 568.380 17.623
69.710 568.220 17.592
70.150 568.490 14.496
69.291 568.750 17.886
69.536 572.550 14.486
69.472 572.570 14.467
69.881 568.950 16.832
70.155 569.010 22.123
70.208 569.050 22.163
70.035 568.920 22.150
69.770 568.380 17.553
69.722 568.200 17.557
69.377 569.720 17.021
69.682 570.930 17.088
70.259 572.580 14.307
70.141 572.450 14.322
69.775 568.380 17.413
69.023 571.380 16.144
69.666 568.150 17.279
69.707 568.850 20.688
69.765 568.880 20.688
69.329 571.720 17.643
70.214 572.630 14.510
70.306 572.650 14.559
70.226 572.650 14.629
69.926 572.710 14.649
69.939 572.430 14.833
69.713 573.020 14.540
70.303 572.710 14.799
70.337 572.750 14.816
70.369 572.620 14.915
68.940 568.070 18.327
69.738 569.360 18.599
69.848 569.430 18.289
69.846 569.630 18.356
69.831 569.380 18.415
70.101 573.260 14.652
70.109 573.290 14.599
68.983 570.750 18.036
69.344 570.730 17.241
69.653 570.630 16.918
69.091 571.650 17.942
69.088 571.640 17.863
69.098 571.660 18.104
69.074 571.690 18.049
69.161 571.610 18.030
69.097 571.660 18.024
69.203 571.510 18.085
69.920 568.390 18.505
68.936 570.940 18.173
70.027 572.170 13.661
70.600 573.330 18.335
70.767 573.540 18.368
70.538 573.410 18.455
70.793 573.540 18.447
70.601 573.700 16.580
69.233 572.580 14.528
69.163 572.810 14.565
69.543 573.230 15.499
69.136 573.180 15.264
69.479 573.020 15.310
69.535 573.310 14.763
69.316 572.690 15.130
70.314 572.770 14.973
70.298 572.750 14.956
70.095 572.460 13.962
70.129 572.430 13.953
70.444 572.620 14.805
69.381 573.250 14.702
69.275 573.340 14.675
69.347 573.420 14.813
70.726 573.630 18.575
68.968 571.960 15.543
70.096 572.290 13.827
69.462 571.670 18.867
69.460 571.660 18.944
69.609 571.600 19.123
69.492 571.760 19.016
69.515 572.400 14.545
68.885 572.240 17.160
70.341 574.890 17.157
70.476 574.780 16.952
70.352 574.910 17.147
69.027 572.030 16.604
69.167 572.160 16.384
69.028 572.020 16.209
70.698 573.070 15.529
70.779 573.100 15.612
70.693 573.030 15.593
70.686 573.030 15.533
69.097 571.720 17.963
69.091 571.820 18.525
70.814 573.830 16.146
70.799 573.460 16.228
70.804 573.500 16.298
70.768 573.480 16.248
69.643 569.440 18.772
69.003 571.090 18.205
68.956 571.050 18.337
69.123 571.030 18.438
69.442 571.930 17.968
69.470 572.100 17.942
70.859 572.800 15.686
70.796 572.790 15.636
70.663 572.730 15.698
70.649 573.130 15.664
70.746 573.090 15.638
69.237 572.240 17.303
70.453 573.970 17.017
70.653 574.230 17.192
70.768 574.030 17.295
70.812 574.110 17.152
69.079 569.100 18.263
69.695 569.720 19.161
69.697 569.650 19.230
70.899 572.770 15.663
70.048 567.960 16.180
70.057 575.150 16.983
69.456 569.330 18.695
69.716 568.260 19.044
70.835 574.340 20.630
70.813 574.260 20.841
70.769 574.520 20.751
70.783 574.280 20.594
69.388 569.240 18.558
69.328 569.410 18.296
69.405 569.240 18.438
68.900 568.410 18.010
68.819 572.250 19.483
69.021 572.340 19.512
68.950 572.270 19.432
70.408 574.130 16.990
70.497 574.030 16.765
70.449 574.170 16.828
70.546 574.110 16.772
69.497 572.200 18.162
69.667 568.450 18.984
69.305 574.330 20.688
69.169 574.380 20.950
69.855 569.490 18.259
69.286 568.690 23.811
69.571 568.570 23.917
69.378 568.550 23.730
68.897 572.340 19.358
70.160 574.900 16.997
69.061 571.180 18.247
69.683 568.260 18.854
69.114 568.650 17.506
69.009 568.420 17.772
69.436 569.280 18.587
68.982 568.160 18.040
69.803 568.230 18.439
69.729 569.640 18.983
69.478 569.240 18.568
70.040 567.760 17.027
69.233 568.660 17.495
69.851 568.770 17.347
69.845 568.160 18.390
68.801 568.870 17.863
70.224 566.880 17.795
69.015 568.330 18.104
69.538 569.540 19.623
69.669 569.500 19.590
69.552 569.410 19.826
69.394 569.240 19.618
69.767 568.280 18.072
69.461 568.690 17.861
69.390 569.840 22.413
69.492 569.890 22.160
69.079 569.800 18.600
69.325 569.640 18.383
69.284 569.820 18.315
69.863 568.760 17.641
70.473 569.360 16.663
70.381 569.340 16.569
70.527 569.090 16.463
70.403 569.170 16.461
69.765 568.620 21.209
69.756 568.470 19.434
70.327 567.230 15.861
69.691 568.620 19.889
69.663 568.600 19.933
69.642 568.490 19.779
69.855 568.290 21.615
69.068 568.000 18.666
70.163 572.580 14.417
69.730 568.260 18.984
69.367 569.250 18.688
69.400 569.300 18.649
69.777 569.780 19.155
69.757 569.810 19.227
69.230 570.660 18.145
69.172 570.700 18.316
69.202 570.640 18.267
70.309 569.500 21.583
69.378 568.400 20.287
69.653 568.620 20.129
69.695 568.520 19.270
69.882 568.400 19.907
69.885 568.370 19.912
69.508 569.430 18.919
69.405 569.360 18.879
69.418 569.420 18.817
69.710 568.740 20.360
69.688 568.760 20.471
69.701 568.660 20.465
69.360 568.430 20.166
69.690 568.750 20.746
69.760 568.930 20.885
70.004 568.290 19.483
69.999 568.340 19.468
69.799 568.670 21.235
69.318 569.990 18.411
69.698 568.730 20.495
69.777 568.640 20.495
70.583 567.210 15.995
69.644 569.440 18.871
70.172 565.420 20.271
69.879 567.430 17.454
69.986 567.730 17.498
69.378 569.890 18.350
69.909 565.140 19.597
70.134 568.460 18.510
69.859 568.180 18.440
70.310 568.290 16.243
70.351 568.310 16.153
70.350 568.080 18.986
70.260 568.130 18.967
70.020 566.840 19.309
69.722 568.240 18.964
69.673 568.270 18.908
70.651 569.050 16.323
70.494 568.930 16.252
70.240 568.170 18.961
69.665 568.270 18.978
70.846 567.220 17.318
70.777 567.390 17.290
70.516 567.710 17.442
70.832 573.240 15.986
70.806 573.330 15.915
70.780 573.380 16.094
70.811 573.410 16.025
69.803 569.780 19.125
69.993 567.730 17.537
69.382 569.310 18.789
69.707 569.670 19.033
69.412 569.230 18.500
69.969 569.850 19.565
69.896 569.810 19.647
69.902 569.800 19.411
69.991 567.730 16.178
69.801 568.820 18.735
70.294 568.740 19.072
70.039 568.470 19.228
70.084 568.460 19.170
69.672 568.340 18.906
70.367 567.820 17.450
70.281 567.800 17.341
70.188 567.920 17.462
69.024 568.720 19.798
69.731 568.240 18.964
69.994 568.550 16.486
69.895 568.430 18.806
69.881 568.470 19.884
69.849 568.210 19.625
69.349 569.200 18.573
69.347 569.200 18.643
70.339 565.790 19.819
70.257 565.810 19.947
70.891 572.570 21.172
70.886 572.720 21.264
70.894 572.860 21.222
70.796 572.650 21.219
69.750 568.500 19.518
69.768 568.510 19.588
69.715 568.650 20.176
69.021 571.260 18.584
69.756 569.760 19.115
70.456 573.150 20.172
70.286 572.910 20.116
70.254 572.980 20.027
70.464 573.070 20.099
70.310 568.700 18.981
70.657 567.530 17.383
69.763 569.280 18.437
69.980 569.010 20.843
68.970 572.310 19.697
68.951 572.270 19.592
68.770 571.360 18.515
69.743 568.490 19.249
70.604 567.600 17.416
70.423 567.890 18.419
70.186 567.800 18.251
70.210 567.770 18.251
69.523 568.960 24.488
68.916 572.340 19.273
68.890 568.620 20.111
69.613 568.450 19.274
70.474 574.290 16.870
70.385 574.420 16.912
70.482 574.330 17.027
70.439 574.520 16.941
70.009 568.440 19.163
70.036 568.360 19.243
70.794 574.070 17.257
70.268 574.580 16.935
70.378 574.370 16.923
68.763 572.820 18.700
69.008 572.920 18.956
68.605 572.920 18.808
68.976 572.690 19.030
68.910 572.190 19.140
68.936 572.180 19.148
68.993 571.220 18.614
68.613 573.080 18.865
70.195 574.980 17.041
70.518 570.680 20.707
70.550 570.810 20.848
70.480 570.670 20.686
70.469 570.660 20.795
70.094 569.950 19.990
70.180 569.890 19.859
69.485 569.030 19.749
69.327 569.160 19.757
69.454 568.990 19.483
70.223 570.520 20.540
70.304 570.540 20.500
70.244 570.510 20.400
70.315 570.540 20.440
69.748 568.550 19.590
70.219 567.790 19.678
69.688 565.070 19.549
69.852 565.200 19.623
69.776 564.930 19.560
69.646 568.820 18.855
69.943 568.920 20.680
69.967 568.900 20.644
69.693 568.570 19.607
70.579 568.680 19.697
69.215 568.260 20.284
69.693 568.660 20.265
70.408 566.390 20.780
70.214 566.490 20.784
70.434 566.460 20.892
69.736 568.840 20.724
69.678 568.600 19.943
70.307 568.430 18.185
70.126 570.440 20.320
69.996 570.260 20.360
69.963 570.340 20.465
70.098 570.410 20.250
69.603 569.180 21.409
69.630 569.150 21.354
70.407 568.120 19.023
70.434 568.090 18.990
70.540 568.210 19.073
70.550 568.030 18.953
70.664 573.610 16.659
70.640 573.590 16.631
69.151 568.140 19.968
70.099 569.820 19.657
70.069 570.000 19.668
69.894 567.660 19.603
69.972 569.030 21.068
69.741 569.070 21.238
69.957 569.040 21.251
69.860 568.990 20.993
70.207 568.200 18.971
70.285 567.930 19.377
69.989 568.850 20.341
69.741 568.670 21.805
69.573 569.330 21.555
69.526 569.350 21.602
69.588 569.260 21.442
70.714 568.700 14.481
69.729 568.480 21.601
70.072 567.390 22.240
70.194 570.540 20.590
70.181 570.480 20.669
70.374 570.570 20.570
68.817 568.800 22.599
69.083 568.560 22.713
69.145 568.590 22.656
68.837 568.850 22.704
69.857 568.210 21.865
70.326 567.850 17.131
69.978 568.960 20.670
70.200 574.580 18.935
69.642 569.090 19.381
70.061 569.030 21.268
70.052 569.180 21.314
69.753 568.390 22.395
69.857 568.330 22.464
69.990 568.410 22.410
70.042 568.920 21.280
70.100 568.900 21.304
70.048 569.050 21.353
69.687 569.040 21.171
69.140 568.770 20.237
70.513 569.970 20.118
70.299 569.860 19.919
70.533 569.750 19.918
70.343 569.920 20.089
69.633 569.100 21.333
69.752 567.170 20.899
69.949 567.080 20.920
69.589 570.050 22.274
69.567 570.040 22.306
70.252 568.450 19.271
70.111 569.800 19.731
69.983 568.890 20.622
68.563 568.230 23.083
68.528 568.180 23.048
68.966 568.110 22.992
69.263 569.580 21.794
69.263 569.420 21.867
70.063 569.270 21.394
69.971 569.160 21.439
70.325 569.690 21.804
70.585 569.780 21.686
69.620 568.570 22.267
69.271 574.400 23.251
69.066 574.440 23.339
69.249 574.440 23.289
69.884 572.500 18.180
69.835 572.400 18.245
69.950 572.540 18.398
69.729 572.190 23.530
69.635 572.370 23.802
69.616 572.410 23.773
69.000 571.390 21.560
68.977 571.480 21.342
69.459 574.810 20.881
69.675 568.610 22.691
69.950 568.570 22.687
69.777 568.540 22.570
69.949 568.780 22.492
69.500 568.300 22.638
69.579 568.280 22.782
70.451 569.910 20.245
70.530 569.660 20.047
70.751 569.930 20.182
69.326 568.680 23.411
69.398 568.770 23.497
69.403 568.700 23.297
69.235 568.990 23.323
70.273 573.440 21.072
70.496 573.380 21.424
70.202 573.210 21.466
70.303 573.130 21.234
70.233 572.610 14.411
70.326 572.450 14.422
70.184 575.020 17.022
70.139 575.020 17.092
70.395 575.100 17.003
69.932 570.580 23.600
69.807 570.730 23.551
69.792 570.490 23.820
69.818 570.780 23.885
69.380 574.570 20.736
69.321 574.460 20.616
69.349 574.470 20.679
70.089 570.270 19.896
70.068 570.220 19.807
70.319 573.070 18.329
70.540 573.440 18.352
69.205 573.590 20.707
70.538 574.020 16.723
68.945 572.230 19.550
69.979 568.270 16.293
70.038 572.250 19.781
70.513 573.800 16.717
70.554 573.780 16.676
70.578 573.870 16.664
70.526 573.850 16.716
69.884 572.150 19.522
70.357 574.940 17.232
70.145 574.960 17.064
70.413 568.910 16.707
69.056 572.970 18.916
69.005 575.980 21.113
68.906 575.930 21.139
68.856 575.840 20.876
70.661 575.180 17.533
70.828 575.050 17.453
70.820 575.020 17.522
68.991 572.350 19.809
70.338 573.080 18.454
70.337 570.440 20.410
70.384 570.450 20.383
70.229 570.400 20.261
70.262 570.460 20.316
69.060 572.490 20.168
69.165 576.700 21.762
69.240 576.790 21.711
69.152 576.690 21.690
69.025 572.510 22.422
69.079 572.550 22.506
69.126 572.450 22.521
69.953 572.270 19.520
70.515 574.490 18.591
70.586 573.710 16.772
68.954 572.650 21.799
70.512 574.150 16.779
70.575 574.450 18.811
70.484 574.610 18.688
69.178 574.900 22.653
69.281 575.220 22.699
69.222 574.870 22.794
69.397 575.000 22.687
69.263 573.920 20.702
69.528 573.360 20.950
70.112 572.580 19.787
70.044 572.460 19.842
70.116 572.520 19.700
68.934 572.860 21.459
69.244 573.700 20.683
69.359 574.870 21.084
69.339 574.680 21.011
70.543 573.700 16.680
69.370 574.310 20.887
70.395 569.120 22.300
70.314 569.100 22.255
70.434 569.290 22.308
69.325 574.210 21.963
69.378 574.270 21.961
69.351 574.440 21.969
69.360 574.240 22.046
69.473 575.310 21.620
70.216 570.380 20.160
70.131 570.360 20.077
70.135 570.390 20.191
70.260 570.470 20.228
69.578 575.190 21.159
70.042 570.110 19.705
69.717 573.990 23.031
69.631 573.970 23.023
69.829 575.130 21.302
69.068 572.410 22.463
68.994 572.510 22.442
69.209 572.800 22.894
69.216 573.780 21.755
69.158 573.850 22.004
69.361 572.620 22.989
69.304 572.640 22.929
69.273 573.510 22.090
69.688 572.830 22.006
69.656 572.900 22.023
69.194 572.400 22.585
69.089 572.850 22.468
69.529 575.200 22.789
69.252 574.440 22.139
69.356 574.260 22.147
69.156 572.140 22.770
69.387 572.420 22.631
70.580 573.660 16.743
70.614 573.730 16.674
69.684 568.600 22.763
69.978 568.690 23.039
69.931 568.580 23.069
69.859 568.470 22.794
69.003 572.570 22.477
69.666 572.810 23.365
69.273 572.740 23.361
69.532 573.050 23.122
69.341 572.700 23.180
68.924 572.400 22.365
69.228 573.510 21.680
69.424 574.710 20.825
70.632 573.700 20.300
70.733 573.640 20.359
70.557 573.360 20.235
70.596 573.490 20.132
70.427 572.280 20.574
70.275 572.340 20.304
70.379 572.420 20.395
69.430 574.880 20.941
69.426 574.750 20.833
70.279 574.640 16.882
70.209 574.710 16.967
70.227 574.700 16.885
70.241 574.640 16.922
68.912 575.980 21.643
70.502 574.090 16.754
70.175 572.900 20.122
70.122 572.960 20.264
69.361 574.050 23.025
69.489 573.950 23.157
69.300 573.950 22.927
69.239 574.530 21.934
70.518 573.730 16.834
69.802 573.240 24.381
69.574 573.350 24.162
69.800 573.020 24.290
69.507 573.030 24.214
69.228 575.100 23.114
69.225 575.160 23.277
69.132 575.230 23.120
69.011 574.960 23.298
69.541 573.980 23.263
70.592 568.140 23.731
70.329 567.930 23.897
70.488 567.840 23.887
70.644 568.130 24.017
69.054 574.730 22.214
69.341 574.300 22.203
69.416 574.390 22.480
69.239 575.510 22.918
69.225 575.530 22.986
70.530 567.950 11.586
70.423 567.950 11.586
69.187 574.540 22.129
69.802 574.790 22.201
69.834 574.860 22.178
69.829 574.840 22.306
69.824 574.820 22.295
69.408 574.410 23.083
69.391 574.500 23.150
69.391 574.530 23.134
70.673 574.200 20.604
69.413 574.540 23.179
69.737 572.550 23.326
69.878 568.880 21.688
70.223 568.800 22.158
70.185 568.870 22.057
70.304 568.740 22.122
70.277 568.750 22.134
70.133 575.070 16.965
70.214 574.780 16.892
70.186 574.780 16.922
69.214 576.440 21.692
69.036 576.130 21.153
70.244 569.970 20.137
70.203 570.350 20.136
70.235 569.980 20.161
70.171 569.030 22.118
70.173 569.020 22.026
70.273 569.090 22.183
69.486 568.370 22.872
69.486 568.650 22.786
70.226 572.610 24.121
70.191 572.370 24.030
69.814 572.440 24.155
70.229 572.470 23.944
69.949 568.990 20.978
70.600 575.140 17.264
70.780 575.260 17.352
70.840 574.810 17.618
69.246 576.400 21.611
70.541 574.650 18.784
69.468 568.170 22.810
69.579 568.160 22.950
69.080 575.170 22.733
69.949 568.490 22.656
69.880 568.310 22.470
69.948 568.490 22.646
70.584 574.640 19.002
70.759 574.550 18.933
69.974 575.990 22.212
70.053 576.030 22.256
70.715 575.380 21.767
70.546 575.160 21.662
70.515 575.240 21.846
70.548 575.170 21.652
69.456 575.140 22.726
69.087 568.630 22.851
69.901 568.830 21.705
69.448 568.310 22.610
69.359 568.260 22.764
68.882 568.890 22.582
69.329 568.610 23.291
69.409 568.700 23.137
69.407 568.390 23.105
70.747 569.230 22.325
70.725 569.260 22.391
70.663 569.210 22.341
69.564 570.820 23.580
69.733 570.460 23.844
68.982 573.470 23.880
68.920 573.530 23.755
68.573 573.580 23.820
68.980 573.560 23.967
69.605 569.040 23.421
69.741 568.830 23.440
69.726 568.910 23.356
69.241 568.450 22.874
69.464 568.660 22.885
69.463 568.980 23.714
70.293 569.390 21.449
70.085 569.300 21.500
70.226 569.420 21.476
70.195 569.350 21.431
69.295 569.420 21.867
69.067 568.140 22.948
69.095 568.100 22.928
68.874 568.090 22.577
70.581 566.940 22.368
70.682 566.910 22.345
70.578 566.910 22.264
70.633 567.010 22.287
70.149 569.290 21.348
70.253 569.280 21.386
70.271 567.420 21.416
70.292 567.430 21.497
70.247 567.390 21.490
70.253 569.470 21.557
69.223 568.550 22.610
69.266 569.570 21.959
69.904 569.070 21.338
69.672 569.540 21.453
69.425 568.350 23.018
69.642 569.550 22.409
70.541 566.950 22.200
70.428 567.100 22.317
70.591 567.030 22.293
70.047 568.510 22.825
70.106 568.460 22.820
70.375 569.910 20.175
70.447 569.510 20.144
70.156 568.910 21.547
70.166 568.870 21.297
70.022 568.800 22.048
70.081 568.870 21.927
70.223 568.010 23.764
70.414 568.090 23.520
70.231 568.130 23.587
69.890 568.740 23.180
69.937 568.450 23.161
69.952 568.710 23.144
70.652 570.100 21.867
70.643 570.040 21.814
70.643 570.010 21.831
70.613 570.060 21.863
69.612 569.600 23.357
69.648 569.710 23.190
69.597 569.700 23.457
69.869 569.750 23.343
69.483 568.890 24.243
69.539 569.220 23.664
69.340 570.170 22.957
69.334 570.220 22.846
69.655 569.930 22.728
69.887 568.570 22.237
70.126 568.880 21.539
69.319 568.690 23.491
69.282 568.560 23.363
69.024 568.590 23.506
69.929 569.120 21.420
70.343 569.740 21.856
70.586 569.870 21.642
69.269 570.080 23.037
69.437 570.270 23.234
69.477 570.280 23.227
69.732 568.840 23.504
70.190 568.770 23.099
69.958 568.640 23.079
70.210 569.200 22.288
70.199 568.890 22.222
69.503 568.920 23.755
70.096 568.900 23.534
70.118 568.880 23.619
69.971 568.700 23.401
68.991 574.920 23.245
70.041 567.200 22.181
69.488 569.700 23.407
69.911 566.090 22.926
69.626 565.770 22.715
69.633 565.810 22.674
69.963 566.030 22.705
69.833 570.590 20.557
69.985 570.610 20.901
70.111 570.380 20.680
69.541 570.280 23.257
69.441 570.260 23.309
69.993 567.800 22.442
70.410 569.070 21.748
69.012 568.660 23.905
69.127 569.060 24.406
70.553 570.030 22.003
70.660 570.100 21.957
69.765 569.990 22.801
70.147 568.730 23.249
70.129 568.890 23.462
70.153 568.860 23.234
70.108 568.880 23.449
70.582 570.010 21.861
69.420 568.360 23.100
70.770 567.970 23.705
70.580 567.810 23.945
70.773 567.990 23.794
70.006 565.890 21.691
69.930 565.780 21.345
70.730 568.020 24.109
70.819 568.050 23.952
70.817 568.170 23.931
70.764 568.240 24.159
70.508 569.950 22.050
70.381 569.960 22.024
70.683 570.090 21.808
70.507 565.750 22.122
70.355 565.690 22.272
70.531 565.840 22.150
70.431 565.850 22.065
70.506 569.550 21.523
69.435 568.950 24.522
69.995 568.910 21.897
69.047 575.380 22.585
69.223 575.500 22.449
70.176 568.550 22.876
69.705 572.140 23.590
70.768 570.310 21.874
70.783 570.250 21.736
70.735 570.260 21.840
70.780 570.330 21.874
70.111 568.880 23.539
70.295 564.570 21.253
70.134 568.950 22.027
70.086 568.450 24.161
70.345 568.720 24.087
70.162 568.760 23.937
70.053 568.530 24.205
70.125 566.960 22.273
70.243 567.340 22.320
69.342 568.270 23.908
70.215 565.250 21.458
70.460 564.900 21.360
70.306 565.260 21.493
70.284 565.110 21.659
70.173 567.740 23.310
70.147 567.760 23.697
70.315 567.800 23.291
70.574 569.120 22.280
70.457 569.150 22.267
69.839 570.780 23.985
69.917 565.610 22.268
70.200 566.660 22.563
70.050 566.800 22.368
70.036 566.800 22.438
70.225 568.690 22.959
70.192 568.760 23.027
70.591 569.930 21.732
70.238 568.940 23.275
70.157 568.990 23.308
69.514 572.490 23.198
70.122 574.860 23.428
69.916 574.840 23.110
69.903 574.900 23.207
70.167 574.850 23.129
69.857 572.630 23.569
69.376 572.600 23.068
69.718 572.530 23.235
69.019 575.360 22.867
